ply
format ascii 1.0
element vertex 1212
property float x
property float y
property float z
property uchar red
property uchar green
property uchar blue
end_header
-0.204509    1.9082   4.83152 121 109 97
0.552082 0.355714  2.41878 161 151 141
-0.0383304   0.483912    1.88801 164 131 54
-0.230396  0.305597   1.81964 134 110 50
0.290117 0.343447  2.12821 161 125 47
0.646747 0.324375  2.45135 197 184 178
-0.291228 0.0995519   1.80406 50 40 31
-0.0499567    0.40828    2.03137 102 58 13
0.389031 0.547605  1.97506 154 121 52
0.394983 0.464925  2.05874 171 138 59
0.516786 0.182462  2.22959 35 30 26
-1.08206 0.205401  2.09611 187 177 168
-0.175814  0.407768   1.83875 138 110 45
-0.285594  0.446188   1.85831 191 181 169
0.186473 0.466868  2.19556 104 57 13
0.0200994  0.382548   2.10043 175 137 52
0.497483 0.191375   2.1713 157 122 41
0.380651 0.226611  2.17909 175 142 65
-0.0620222   0.386129    2.07193 146 110 34
0.416599 0.273694  2.14127 135 105 45
 0.82977 0.522983  2.39531 198 185 177
 0.30702 0.618569  1.99627 161 131 59
0.646744 0.521609  2.34422 186 173 165
-0.225872   0.72149   2.05773 165 155 145
0.291928 0.325162   1.7985 133 86 16
 0.13368 0.406879  1.92029 179 138 46
  0.0601797 -0.00827571     2.42412 214 204 195
0.531321 0.535989  2.29592 138 128 118
-0.0747317   0.774482    2.01392 127 119 108
0.114799 0.461722  2.03539 154 117 36
0.437503 0.785889  2.17915 177 162 155
-0.0470629   0.437255     1.9161 133 99 25
 0.174017 -0.238495   2.62093 221 216 212
-0.112201  0.205695   1.84912 156 133 63
0.326445 0.429816  2.07442 197 154 59
-0.215738  0.118167   1.75574 29 15 4
-0.217592  0.120711   1.80945 133 109 49
-0.313617  0.231526   1.78327 27 17 8
-0.317033 0.0978759   1.68808 34 25 20
-0.305487  0.111392   1.70404 25 11 8
-0.318577  0.101244   1.69642 205 194 190
-0.274009  0.237486   1.79134 66 40 23
-0.245648  0.202376   1.76589 55 32 16
-0.327174  0.225934   1.77951 185 178 170
0.514433 0.191601  2.27349 37 29 26
-0.329771 0.0816016   1.68637 19 10 11
-0.252999  0.170341   1.74396 120 88 63
-0.321711 0.0887313   1.67492 22 14 11
-0.367213  0.157652   1.79062 202 192 180
-0.321196  0.205512   1.76168 191 182 175
-0.0612351   0.173049    1.83944 71 59 47
0.559984 0.463253  2.16187 50 42 39
-0.251108  0.103957    1.7878 174 164 152
-0.289728  0.207765   1.77036 131 103 81
-0.328328 0.0897361   1.67789 189 181 178
-0.268472  0.185915   1.75336 56 28 14
-0.275074  0.182122   1.75924 55 28 9
-0.0512568   0.215656    1.83411 48 26 3
-0.348617  0.162682   1.77069 201 192 183
-0.268694  0.212295   1.77464 59 33 18
0.113966 0.530581  1.97531 154 122 49
-0.0609066     0.1135    1.81145 65 40 0
-0.267543  0.140469   1.72848 75 42 23
0.286872 0.193958  2.20457 147 111 51
-0.295161 0.0904602   1.69295 42 23 16
-0.350123  0.153917   1.78055 131 119 107
-0.0988131    0.50603    1.86562 120 84 32
-0.228872  0.473951   1.85276 162 133 67
-0.270517  0.194638   1.76557 61 32 16
-0.341677  0.168476   1.76763 101 91 81
-0.238842   0.13554   1.74222 60 31 13
-0.09713 0.529323  1.86465 110 73 28
-0.218206  0.158684   1.73698 138 109 79
-0.148292  0.195295   1.78073 119 94 30
-0.342655  0.164535   1.77079 137 125 113
-0.221026  0.134363   1.74902 131 99 76
-0.325931  0.159121   1.76452 142 114 92
-0.233324  0.228065   1.80865 117 87 27
0.307636 0.613275  2.00291 157 124 45
-0.12505 0.366355  1.91334 126 93 22
0.304477  0.67713   2.0294 155 140 121
-0.0619671   0.401233    2.02379 103 59 14
-0.339773  0.185462   1.77433 104 86 72
-0.235439  0.195933   1.76131 65 34 14
-0.295985 0.0841062   1.68349 24 10 7
-0.308532 0.0930875   1.68962 34 17 10
-0.221822  0.121158   1.75136 96 77 63
-0.264804  0.186469   1.75435 118 87 69
-0.276865  0.114527   1.70768 100 76 64
-0.143995  0.594084   1.88263 151 141 129
0.479358 0.461734  2.07366 146 112 40
-0.265152 0.0713153   1.70417 50 41 36
-0.150201  0.345215   1.89628 106 74 23
-0.281179  0.194756   1.76135 93 60 41
-0.282908   0.10185   1.70645 60 42 32
-0.267958  0.111729   1.72214 77 53 43
-0.268051 0.0806251     1.725 22 17 14
0.470667 0.475694  2.06086 141 106 40
-0.137939  0.346993    1.8941 97 65 8
-0.319876  0.148975   1.75679 138 112 95
0.517374  0.44107  2.20867 137 105 44
0.511001 0.206461  2.24026 73 49 25
-0.27397 0.135245   1.7247 114 82 61
0.461861 0.504072  2.04718 148 117 52
-0.271635  0.224853   1.78442 71 42 24
-0.0691847   0.532419    1.86899 114 82 33
-0.0626023   0.474093    1.91541 142 108 36
-0.0292943    0.67225    1.93799 161 149 135
0.250853 0.498854  1.99846 194 155 64
0.555912 0.465517  2.14126 42 29 21
0.043823 0.584871  1.90363 170 137 66
-0.0571951   0.136237     1.8154 43 32 26
-0.301903  0.223172   1.77715 61 38 22
-0.0909261   0.416754    1.85665 143 111 38
0.114509 0.439282  2.08435 137 90 12
-0.253753  0.115214   1.73106 52 35 25
 0.46612 0.171991  2.31601 145 119 68
0.451899  0.50191  2.04632 138 106 45
-0.326908  0.186214   1.77044 111 84 65
-0.477891  0.741762   1.97033 159 149 140
-0.561298  0.856903    1.8683 168 159 150
-0.276253 0.0933763   1.71299 31 17 8
0.498681 0.718835  2.22946 143 133 121
-0.314204  0.212369   1.77516 74 47 28
 -0.24697 0.0926871   1.72381 24 15 8
0.414302 0.567033  2.02954 149 116 47
-0.234353   0.45583   1.84358 181 158 104
-0.178204  0.533074   1.85182 176 150 91
-0.248364 0.0803193   1.72515 28 17 11
-0.270336 0.0983002   1.71559 37 20 13
-0.238406  0.225657    1.7903 128 102 51
-0.088098  0.532053   1.86187 121 91 39
-0.222133  0.173491   1.74831 124 91 60
0.658563 0.625555  2.22541 159 152 142
-0.236096  0.163331   1.74068 87 57 33
-0.298681  0.228407   1.77954 66 47 33
-0.630883 0.0966287   2.27651 184 174 165
-0.102612  0.385811   1.88159 139 108 26
-0.145936   0.47636   1.83995 133 97 49
0.0565038  0.377219   2.05956 149 110 33
0.334294 0.301658  2.11782 146 111 45
-0.276682  0.117382     1.714 68 45 31
-0.0770701   0.535788    1.87085 154 122 65
-0.23367 0.118626  2.30718 177 167 158
-0.219213  0.172709   1.73946 96 62 35
0.523675 0.485613  2.09692 131 98 31
0.273885 0.455342  2.06121 167 130 41
-0.232746  0.817353   1.96752 164 155 146
-0.0603676    0.52775    1.87127 141 111 49
-0.142617  0.139778   1.76555 166 138 65
-0.271926  0.111429   1.71932 51 29 18
-0.268541  0.105389   1.72506 37 20 12
-0.169053  0.201088   1.76533 154 131 63
0.0428842  0.572231   1.93614 170 138 65
 0.44096 0.493411  2.03672 141 106 38
-0.0486656    0.54133    1.88265 136 104 47
-0.242724 0.0892014   1.74472 41 30 24
0.448562 0.359352  2.20504 125 93 32
0.460611 0.593047  2.05184 142 109 40
0.146053 0.456942  2.06549 183 140 45
0.0466593   0.55618   1.86215 175 142 71
-0.150533  0.381097   1.86376 111 85 26
 0.38586 0.277267  2.13102 151 117 54
-0.193154  0.436641   1.82919 161 136 69
-0.0782029   0.519378    1.87015 144 109 53
0.392485 0.272117    2.137 152 117 51
-0.0503615   0.531321    1.88133 141 112 54
-0.105719  0.544779   1.86584 145 115 53
-0.0813204   0.550151    1.87315 140 110 50
-0.0639497   0.236828    2.13113 213 191 168
-0.0788975   0.506786    1.86434 136 105 50
-0.133679  0.508249   1.84971 114 74 25
-0.506922 -0.173384   2.41177 216 209 199
-0.0902975   0.385368      2.032 104 64 13
0.131466 0.454433  2.05289 152 115 27
0.286432 0.617594  2.00444 172 141 61
 0.46875 0.212298  2.15803 178 141 60
-0.318838 0.0745321   1.69457 34 22 22
0.227301 0.406522  2.12829 169 126 34
-0.343888 -0.118597   2.53637 189 176 170
0.411784 0.279024  2.15017 129 94 40
 0.40936 0.425236  2.09704 199 157 71
-0.18202  0.16649  1.77965 158 131 60
-0.0695043   0.349411    2.02998 150 114 36
-0.0628723   0.241337    2.03322 175 142 65
-0.126099  0.503939   1.85058 118 82 32
-1.28362 0.829029   1.7215 181 171 162
0.00909288   0.431799    2.00296 171 136 44
-0.567836  0.584657   2.02521 172 162 153
-0.127986  0.453065   1.83493 159 130 64
-0.674508  0.676716   1.94466 170 160 151
0.390708 0.286518  2.13022 141 107 43
0.115982 0.463084  1.97049 165 130 48
0.466525 0.378251  2.40008 136 123 107
0.339878 0.177248  2.21527 134 95 54
-0.212984  0.315192   1.95206 141 108 41
-0.152707  0.343589   1.87976 89 65 19
-0.124909  0.588165   1.87057 180 159 116
0.420501 0.419468  2.08675 201 161 76
-0.168193  0.535101   1.85817 175 147 84
0.464736  0.50568  2.05578 127 94 40
 0.22168 0.455624  2.17187 98 54 5
-0.0898213   0.138194    1.78358 142 113 43
0.333233 0.794135   2.1217 161 150 144
-0.251969 0.0749802   1.73767 45 34 28
0.244269 0.207534  2.23888 164 137 84
-0.240335  0.104326   1.74355 32 23 16
-0.192439  0.810521    1.9719 169 160 153
  0.561785 0.00840639    2.64618 180 169 163
0.244542 0.636733  1.97593 172 140 65
0.160296 0.465669  2.01581 158 121 41
-0.328584  0.152221   1.76271 102 79 61
 -0.2249 0.159557  1.74089 108 79 47
0.396715 0.458462  2.04032 165 129 51
0.470869 0.425303  2.28621 153 137 122
-0.105793  0.499722   1.85579 114 80 32
0.318992 0.476133  2.02206 166 129 49
0.487768 0.440422  2.10599 158 121 41
-0.0881159   0.504296    1.86108 135 103 46
0.437234 0.463612   2.0582 156 122 58
0.162679 0.298565  2.09498 168 134 60
-0.142656  0.513025   1.84494 136 101 45
0.377434 0.283586   2.1285 138 107 43
0.348493 0.181424  2.22441 163 125 62
-0.0825582   0.262511    2.10394 180 147 68
-0.109457  0.477669   1.84981 109 75 29
-0.206925  0.398494   1.83306 148 121 50
0.140893 0.370145  2.08365 155 119 41
 0.41069 0.267768  2.14601 151 116 48
-0.0402241   0.520228    1.88808 162 133 65
-0.126959  0.503681    1.8479 119 81 34
-0.547648  0.846798   1.89751 168 159 152
   0.1666 -0.107287    2.1296 211 198 190
-0.286713  0.103447   1.74629 31 20 14
-0.142437  0.486233   1.86093 107 64 29
-0.337624  0.127754   1.75196 197 187 178
-0.0758594   0.182805    1.81059 151 129 56
0.537204 0.510644  2.08789 151 119 46
-0.066234  0.179972   1.86538 25 14 8
-0.316626  0.092674   1.67722 16 5 3
-0.339085  0.162952   1.76802 137 123 112
-0.0565521  0.0950472     1.8176 79 57 46
-0.200559  0.371597   1.81529 163 134 54
-0.286375  0.105396   1.70196 56 37 30
 0.50806 0.201184  2.32044 182 172 163
-0.281653  0.200685    1.7554 119 92 63
-0.327388 0.0725401   1.69295 30 20 18
-0.253136  0.170355   1.74415 120 88 63
-0.314221   0.13503   1.74782 131 109 88
-0.205555  0.176029   1.74816 147 123 61
-0.323632 0.0932481   1.67796 191 184 176
-0.15724 0.356284  1.94134 137 105 30
-0.285928   0.16549   1.74544 101 65 41
-0.21915 0.158316   1.7499 74 40 12
-0.343902  0.183587   1.76917 193 184 175
-0.228339  0.106724   1.74062 30 17 9
-0.326915   0.06953   1.69164 213 203 201
-0.278718  0.229669   1.78237 94 63 43
0.514691 0.281335  2.23123 132 102 38
0.545117 0.437033  2.14003 83 54 24
 0.14609 0.332628  2.01649 182 147 65
-0.326184 0.0768531   1.68724 29 21 18
-0.273473   0.18801   1.76045 43 20 12
-0.0553359   0.101461    1.83086 15 5 0
-0.257442   0.10444   1.78973 54 42 30
 -0.2951 0.188421  1.77115 58 26 11
-0.319321  0.156161   1.76221 90 59 38
0.556476 0.448644   2.1516 43 34 29
-0.223283  0.212036   1.77519 57 32 2
-0.283918  0.112781   1.70335 61 41 30
0.560388  0.44889  2.17188 29 24 18
-0.221374  0.134455   1.74958 131 99 76
0.154118 0.226366   2.1322 193 160 81
0.523894 0.187966  2.24491 163 152 146
-0.353738  0.157356   1.77656 205 198 190
0.550609 0.440121  2.14737 131 119 105
0.533754 0.421277  2.17307 100 74 37
-0.275223  0.191289   1.75806 118 91 72
-0.046163  0.218393   1.84328 172 142 90
0.548916 0.464042  2.13845 79 52 33
0.553327 0.492566   2.1858 143 134 129
0.441166 0.407139  2.16376 118 85 50
0.488672 0.638274  2.24336 163 150 133
-0.344049  0.167039   1.77402 125 109 94
-0.0628904   0.110007     1.8164 146 121 65
-0.238184  0.102716   1.78232 112 92 67
-0.262997  0.163892   1.74141 146 116 88
-0.0580735   0.109811    1.81545 74 46 9
0.542448 0.434174  2.14743 97 71 44
0.323721 0.501883  1.98003 184 147 66
-0.0583884   0.110291    1.82577 97 73 45
-0.132647  0.200771   1.77227 150 122 59
0.584495 0.392293  2.36161 183 173 164
-0.0558563   0.171883    1.80282 43 25 5
-0.333138 -0.126977   2.50512 194 185 176
-0.0636293    0.10982    1.82903 66 39 12
  0.238844 -0.0603037    2.38611 212 199 191
-0.255658 0.0802294   1.72164 47 37 28
-0.0605546   0.183362    1.81454 43 21 0
0.483641 0.625042   2.1502 155 142 125
-0.261979  0.157654   1.73645 132 101 73
-0.221961  0.155035   1.74894 148 117 88
0.523034 0.175968  2.23738 128 121 115
-0.221292  0.152759   1.74848 140 106 78
-0.0569842   0.136066    1.81473 43 32 26
-0.254539  0.104283   1.74023 43 30 21
-0.0669099   0.701728    2.00047 166 151 130
-0.0505937   0.132209     1.8159 55 33 20
-0.100537  0.117596   1.83225 152 130 93
0.558469 0.470108  2.17624 145 138 132
0.543164 0.424214  2.14539 72 51 32
0.493845 0.038381  2.56757 206 196 187
-0.0590538   0.170985    1.82512 21 10 4
0.694168 0.221787  2.50957 201 190 184
0.540011 0.476105  2.15773 138 106 45
-0.34118 0.167705  1.77475 87 68 53
-0.250143  0.124187   1.73442 77 52 32
0.408004 0.147506  2.22666 198 182 167
0.532538 0.559036  2.11289 165 150 127
0.757546 0.320189  2.42743 195 182 176
-0.273681  0.209313   1.77188 70 44 29
-0.280345  0.142738   1.72972 105 77 55
-0.226919  0.183871   1.74815 85 52 21
0.554251 0.506134  2.11402 149 125 65
-0.244184  0.143819   1.73355 83 49 24
-0.215733  0.153105   1.75641 126 92 46
-0.335327  0.170596   1.76868 86 63 45
0.0113443  0.630995   1.90856 169 139 66
-0.260116  0.076391   1.72072 24 15 10
-0.237725  0.215196   1.77723 111 81 57
-0.0609841   0.162362    1.80303 48 27 6
-0.231662  0.119795   1.74718 49 25 13
-0.233091  0.148153   1.74652 105 69 35
0.337427 0.258401  2.12563 195 162 81
-0.0597907   0.127497    1.81333 50 41 36
0.399909 0.295138   2.1707 141 106 40
0.513467 0.190192  2.23025 92 75 59
-0.0402767   0.435725    1.93346 155 124 34
 0.113401 -0.327354   2.76419 26 25 23
0.244403 0.658977  2.00046 173 141 66
0.610346 0.428107   2.3142 178 168 158
0.105394 0.484791    1.948 183 148 56
0.552176 0.523375  2.07121 172 155 127
-0.0490979   0.178164    1.80135 50 34 19
-0.284705  0.165396   1.74941 96 60 34
-0.216128  0.158106   1.75283 121 87 41
0.175955 0.443233  2.11496 118 68 7
-0.246285  0.183632   1.74791 112 77 57
0.481327 0.157153  2.18659 188 151 60
-0.248694   0.22953    1.8015 113 84 42
-0.268771  0.113916   1.71505 72 49 35
-0.243708 0.0982805   1.74271 46 33 25
-0.213794  0.374005    1.8073 172 152 99
-0.0610424   0.613575    1.89711 173 143 71
-0.183776  0.151602     1.763 160 132 58
-0.221939   0.12849   1.75598 64 36 22
 -0.26377 0.0822627   1.71337 33 26 20
0.365763 0.441282  2.39977 148 108 36
-0.110547  0.555123   1.86886 171 142 76
0.323337   0.6574  2.04383 167 136 56
-0.127103  0.512809   1.85464 135 98 43
-0.061593  0.158984   1.80784 28 15 7
-0.0604485   0.155217    1.80194 48 34 25
-0.101918  0.550731   1.87844 148 120 57
-0.246939 0.0926463   1.72335 20 13 7
-0.285161 0.0920192   1.70883 48 34 25
0.349979 0.429966  2.08641 190 144 56
-0.0800085   0.548646    1.87179 156 126 62
-0.0661177   0.139339    1.82351 16 7 0
 0.217916 -0.191284   2.63605 220 211 204
-0.247388  0.355443   1.83379 175 155 105
0.454259 0.485371  2.05379 118 83 25
-0.26809 0.207978  1.77556 67 40 23
 -0.28161 0.0866482   1.70823 28 17 11
  -0.2514 0.0788721   1.74136 31 22 15
-0.0720219   0.153013    1.82001 21 12 5
-0.22842  0.23923  1.84909 124 93 36
-0.059608  0.252602   2.09815 172 141 61
0.448182 0.459326  2.06304 169 132 62
-0.255308   0.15124   1.73982 104 68 42
0.0365464  0.566148   1.98709 167 134 57
0.00626628 -0.0143461    2.48883 209 196 187
0.419794 0.465732  2.06063 171 136 68
-0.257802 0.0889513   1.77154 68 55 49
0.442713 0.270634  2.17466 165 132 53
-0.259649  0.215326   1.77263 102 69 50
-0.286917 0.0804614   1.70388 27 22 18
0.302678 0.614224  1.95998 171 139 64
-0.322797  0.180738   1.76819 112 84 60
-0.0682352   0.138807    1.80672 45 30 25
-0.102234  0.483951   1.85476 147 116 51
-0.264739  0.145994   1.73681 103 68 40
-0.236273  0.168155   1.74106 89 51 28
0.635968  -0.1351  2.66274 214 205 198
0.588488 0.361789  2.41719 183 170 164
-0.312237  0.209739   1.77506 103 71 50
-0.116447  0.514974   1.87885 154 120 59
0.595504 0.436155  1.88417 151 127 67
 -0.28629 0.0770778   1.70239 17 9 6
0.362536 0.313348  2.12505 155 118 48
0.157993 0.671201  1.99347 175 143 66
0.511037 0.237034  2.26051 119 87 28
0.540505 0.442546  2.12061 166 134 49
-0.0712879   0.138552    1.77718 153 126 55
0.138408 0.644208  1.93724 173 141 68
0.114554 0.175896  2.43362 193 179 168
-0.0671782   0.519065     1.8736 139 107 46
0.276359  0.36634  1.94435 138 92 14
0.417361 0.284116  2.13819 156 122 51
-0.124234  0.192981   1.77691 155 132 65
0.428188 0.262982  2.14332 159 123 47
0.473903 0.170289  2.20088 180 141 48
-0.0311508     0.5233    1.88549 155 125 55
 0.193794 -0.069682    2.5662 210 200 191
0.312828 0.607523  2.00904 171 138 61
-0.0780506    0.80397      2.191 164 148 122
0.198239 0.396665  2.16899 173 136 48
-0.295504 0.0956521   1.71016 52 35 27
0.000133068    0.449297     1.84439 170 135 54
0.253337 0.615494  1.99799 173 140 63
0.400712  0.26825  2.13007 156 121 57
0.506544 0.448906  2.17043 175 140 50
-0.0542619   0.130459    1.79653 31 24 16
-0.294774 0.0853117    1.6895 48 31 24
-0.0194992   0.555817    1.86567 166 135 68
-0.175597  0.152944   1.76238 148 121 50
0.355809  0.29431  2.12143 153 116 46
0.407587 0.399194  2.30019 148 111 41
0.400887 0.376361  2.17815 147 101 24
0.359151  0.31184  2.12331 149 112 42
0.121277 0.419638  1.94167 184 146 49
0.0958189   0.67227   1.95769 174 147 80
-0.145646  0.198727   1.78423 136 110 51
-0.224187   0.11623   1.75712 49 36 27
-0.295872  0.102792   1.72326 48 28 19
0.352998 0.432201  2.07819 200 156 67
-0.0835172   0.142205    1.82938 37 23 10
0.604715 0.476656  2.31454 177 169 158
0.42133 0.42622  2.6155 174 160 147
0.0662103  0.373359   2.05206 168 128 40
 0.617852 -0.101849   2.70971 212 201 195
0.198455 0.235461  2.24639 193 158 77
0.247158 0.366975  2.10362 172 135 47
-0.213386   0.33326   1.82655 138 114 44
0.416882 0.274617  2.13799 143 109 45
0.369516 0.516545  2.04687 173 138 57
-0.088337  0.142358   1.80698 143 115 42
0.087769 0.308836  2.11608 194 158 84
0.283289 0.316538  2.09742 170 135 54
 0.24751 0.440565  2.05372 186 147 46
0.0281906  0.352611   2.03759 172 137 55
 0.549788 -0.122835   1.03958 199 185 174
0.474106 0.451174  2.07577 172 135 54
0.497269  0.18196  2.22319 173 137 53
-0.218385  0.388813   1.82352 174 148 71
-0.11637 0.491717  1.86209 124 87 42
0.600793 0.513251   2.3744 178 169 160
 0.25572 0.346929  2.08264 173 135 50
-0.155579  0.502232   1.84476 162 131 66
-0.113684  0.549985   1.86502 165 136 68
-0.130708  0.591937   1.88443 173 147 90
-0.00329735    0.434901     2.00967 169 133 37
-0.247868  0.795928   1.98174 173 164 155
0.0819852  0.798296   2.00489 155 145 135
-0.0880052   0.766228    1.94941 162 152 140
0.0392885   0.44645   2.03349 167 131 35
0.251763 0.433421  2.13083 104 55 0
-0.102036  0.531996   1.86532 153 122 58
-0.0391288   0.793219    1.96577 158 150 139
-0.330506  0.201214   1.77548 77 55 41
0.532316 0.322085  1.41027 164 131 54
-0.324442  0.198625   1.77365 105 73 52
0.432974 0.486339  2.16377 150 112 37
-0.0777128    0.10558     1.8438 47 29 9
-0.140141  0.466957   1.83284 124 88 52
-0.198838  0.192401   2.34358 129 122 114
0.398021 0.287492  2.13168 124 92 43
-0.076906  0.113763   1.80163 57 32 10
-0.227174  0.249556   2.12151 108 81 36
0.421674 0.444716  2.14631 149 110 35
0.492331 0.156763  2.22218 48 36 22
-0.0976763   0.572895    1.87868 175 144 89
-0.227636  0.232897   2.01214 89 62 19
0.552536 0.431188  2.16421 167 160 154
0.488509 0.167466  2.21002 141 110 46
0.358244 0.177607  2.28987 124 99 43
0.533152   0.4212  2.19497 130 123 113
0.383543 0.272229  2.13336 164 131 60
 0.24873 0.489101  2.01574 150 116 44
0.470389 0.418663  2.19642 137 102 46
0.289534 0.195252  2.23827 120 95 38
-0.349277  0.148163   1.84522 23 18 14
-0.22063 0.230864  2.06995 89 61 22
0.195136 0.480153   1.9953 137 102 38
-0.19154 0.241635  2.02109 108 76 27
0.506515 0.182544   2.2116 123 93 41
0.223831 0.521129  1.98577 168 135 66
0.111775 0.488657  1.98297 150 112 39
0.284325 0.323703  2.10385 127 95 38
0.544997 0.445834  2.14311 134 104 50
-0.145991  0.257244   2.17373 116 89 42
-0.143116  0.232749   2.06171 114 85 25
0.154082 0.505932  1.98277 163 129 57
0.282866 0.199348  2.18958 112 81 27
-0.166538  0.403968   1.85242 151 124 55
0.287237 0.450967  2.07708 151 115 41
0.178029 0.477671  1.96905 161 128 51
0.454309 0.401779  2.15298 139 103 41
-0.170278  0.233645   2.06191 99 69 19
-0.241168  0.224831   1.98271 111 80 33
-0.169383  0.237034   2.03301 114 81 27
1.26816 2.14663 1.40089 183 175 172
 0.36091 0.213963  2.15025 150 117 48
-0.146148  0.247162   2.05584 121 89 30
0.342325  0.18179  2.24871 91 61 27
-0.076976   0.55305   1.88408 161 130 76
0.450189 0.411136  2.18006 134 98 40
0.458729 0.489207  2.03855 148 116 65
0.294646 0.439252  2.07133 149 113 37
0.402266 0.429779  2.06557 117 87 27
-0.214529  0.247778   2.09814 111 83 33
-0.053231  0.245664   2.15079 115 88 35
 0.45527 0.458937  2.04393 121 89 38
-0.0650168   0.481813    1.85896 157 128 70
0.304566 0.437762  2.07737 133 96 28
-0.243404  0.328281   1.82982 160 132 67
0.948612 0.575627  2.36096 166 157 152
-0.0803226   0.252025    2.07708 118 88 28
-0.075141    0.2387   2.11808 98 69 25
0.113239 0.191564  2.32831 125 115 105
-0.119186  0.417981   1.86221 155 122 53
0.0562491  0.255157   2.13288 140 111 45
0.822971 0.574157  2.32373 173 164 159
0.0785994  0.519454    1.9267 167 136 72
-0.179782  0.215487   2.10749 113 84 40
1.23061 2.13242 1.43078 190 182 179
0.208535 0.238565  2.15389 127 95 34
0.335248 0.248514  2.16953 155 122 51
-0.170534  0.280437    1.9911 124 92 35
 0.47818 0.176159  2.19606 145 112 35
0.389318 0.308945  2.13415 151 118 51
0.142703  0.27262  2.11598 153 120 53
 0.514135 0.0978631   2.55746 147 142 136
-0.130552  0.155828   1.76778 154 129 65
-0.258151   1.11625   1.88089 177 168 161
-0.107076  0.249473   2.05986 125 93 36
0.407073 0.395624  2.12592 136 95 31
0.416251 0.434365  2.10145 151 117 45
-0.204747  0.232182   2.03813 107 76 29
0.460488 0.409889  2.12303 132 94 32
-0.170395  0.249359   2.15312 123 96 51
0.0122396  0.258578   2.12312 136 105 40
0.191531 0.226628   2.2371 121 98 44
0.427944 0.407861  2.11005 129 94 30
0.164097 0.467257  2.00292 131 97 34
0.140062 0.219736  2.20627 123 98 44
1.38089 1.02584 2.24333 177 167 165
0.0926411  0.566697   1.93838 171 140 76
 0.47955 0.449672  2.07052 149 118 54
-0.0356902   0.443162    1.88472 155 122 55
0.360244 0.405249  2.15171 108 66 18
0.0440207  0.258462   2.16576 110 80 28
0.471561 0.198361  2.17824 155 122 53
0.527384 0.882973   2.1235 181 174 168
-0.103617  0.425967    1.8733 151 118 49
0.245374 0.213577  2.19591 127 97 33
-0.191687  0.266045   2.19794 130 121 106
0.408969 0.176696  2.23045 109 77 28
0.948881 0.581499  2.36577 163 156 150
0.809893 0.658089  2.28823 172 163 156
0.790166  0.61692  2.31642 171 164 156
-0.109027  0.237018   2.10523 118 87 33
0.415464 0.266138  2.14049 156 123 56
-0.0705188    0.42835     1.9015 144 110 38
-0.250419  0.272225   1.91244 184 172 160
-0.340259  0.141462   1.78739 31 21 19
0.507283 0.167285  2.23209 22 17 13
-0.368905  0.167379    1.8701 22 17 14
0.554541 0.434904  2.15708 13 12 8
0.536287 0.424132  2.18366 34 24 12
 -0.33577 0.0839483   1.68346 183 173 164
0.517831 0.182256  2.27074 104 99 95
0.541222 0.436116  2.12284 51 37 24
0.488996 0.167726  2.20588 108 80 30
-0.270298 0.0669963   1.73442 54 36 24
0.406417 0.421139  2.07793 106 73 22
0.520591 0.418111  2.14065 91 66 26
0.504008 0.183484  2.20618 110 84 35
-0.0403128   0.271298    2.08514 123 92 37
-0.372173  0.173469   1.89259 107 82 52
-0.327557  0.156933   1.87863 55 43 27
-0.21645 0.245294  2.08325 88 56 17
-0.233369  0.100044   1.75342 56 39 19
0.184937 0.442819  2.03534 112 76 18
0.055094 0.254199   2.0952 135 105 43
-0.188475  0.300239   1.98626 114 84 30
-0.269167  0.222992   1.97392 62 42 9
-0.136596  0.221326   2.05842 101 69 18
0.162306 0.288522  2.11702 152 121 54
-0.281548  0.172097   1.88755 68 49 19
-0.163147  0.314629   1.99264 118 85 31
-0.252944   0.25139   2.06345 120 96 36
-0.157197  0.257345   2.03629 113 80 27
0.521365 0.210256   2.2025 112 105 95
0.349932 0.164657  2.13461 152 119 50
-0.169987    0.2447   2.06621 108 76 25
0.159226 0.499598   1.9763 151 121 57
-0.123659  0.253431   2.05379 111 80 26
0.459211 0.452751  2.06025 106 74 33
0.507219 0.420659  2.11938 92 61 17
0.253585 0.207338  2.16847 118 87 32
-0.308787 0.0890691   1.73243 31 21 20
0.273746 0.450884  2.05257 116 80 20
-0.235649  0.248677   2.05627 106 78 31
-0.18719 0.263272  2.15742 128 102 53
0.443939 0.543728  2.04027 148 122 65
-0.191332  0.244428   2.08312 95 65 27
-0.306193  0.162844   1.86597 26 18 15
0.212535 0.270693  2.12607 144 113 46
-0.190635  0.252845   2.09932 113 86 39
-0.170068  0.249649   2.04017 113 82 27
-0.300472  0.181198   1.92891 103 80 39
-0.27204 0.244606  1.99754 97 69 29
-0.315129  0.278114   2.06605 170 155 134
-0.291365  0.205886   1.95946 94 69 29
0.311321 0.203982  2.15163 133 103 41
0.330031 0.178021  2.24129 59 38 7
-0.286633  0.243768   2.01247 113 86 41
-0.146345  0.236281   2.04755 117 84 30
-0.249373  0.231446    1.9881 70 44 11
-0.291059  0.232996   1.99701 107 83 39
-0.306784  0.128739    1.8054 26 20 20
-0.306003  0.135449   1.82374 17 12 9
-0.117513  0.244146   2.06574 106 76 26
-0.185089  0.242846   2.05942 94 63 17
-0.232922  0.245243   1.99589 91 63 24
-0.208054   0.24442   2.08129 90 61 21
0.386707 0.160315  2.22833 61 44 16
0.265743  0.19797  2.20615 84 59 18
-0.198826  0.243421   2.08063 101 72 32
-0.340887  0.165993   1.89136 69 52 32
0.438761  0.42684  2.06838 117 86 32
-0.169067  0.274007   2.01926 120 89 35
-0.249542  0.254117   1.99145 81 57 23
-0.287671 0.0942583   1.76104 29 24 21
-0.195384  0.241307   2.06479 92 63 23
0.236543 0.252068   2.1413 135 103 42
-0.285733  0.194523   1.85497 26 17 10
0.129091 0.438075  2.04471 113 74 17
0.467883 0.455488  2.06131 119 91 41
-0.183493  0.259094   2.01494 107 76 29
0.405782 0.439996  2.05458 124 93 36
-0.213751  0.250835     2.112 114 83 36
-0.0755356   0.259549    2.06928 114 83 29
0.267599 0.465227  2.03759 130 95 37
0.393251 0.153696  2.21614 58 38 11
0.350419 0.170354  2.19791 63 39 15
 0.35338 0.175478  2.19295 76 51 20
-0.319943  0.139888   1.82927 20 14 14
-0.366911  0.180676   1.83573 38 28 26
-0.315181  0.124873    1.7922 30 22 20
 0.49824 0.163814  2.22607 52 36 11
-0.222148  0.256908   2.13646 129 102 49
  1.30134 -0.144666   2.87773 186 177 172
  1.30664 -0.170848   2.84361 188 179 174
-0.143343  0.336389   1.86629 109 80 24
-0.223832  0.118105   1.74672 52 35 25
0.461546 0.487016  2.05319 107 70 28
-0.130139  0.483267   1.84064 119 85 47
  1.55113 0.0109977   2.89439 196 187 182
-0.070537  0.399289   2.04161 83 45 9
0.347244 0.230459  2.15978 181 147 73
0.452776 0.489343  2.04412 100 60 24
-0.052888  0.087333   1.81447 163 155 144
-0.0588833   0.186307    1.80607 137 113 49
-0.193702  0.131782   1.74167 141 116 52
0.421748 0.144076  2.13967 152 120 59
0.545358 0.456439  2.11563 191 184 178
-0.323501  0.171014   1.76405 93 68 46
-0.290847 0.0873797   1.69454 58 41 31
-0.107556  0.202632   1.79085 137 116 53
0.493286 0.175766  2.19683 155 124 59
-0.261378  0.208127   1.77391 61 38 24
-0.240168  0.223296   1.79966 84 57 30
0.0794774  0.373937    2.0629 167 126 44
0.526899 0.435343  2.11146 162 127 61
-0.255479  0.135899   1.72456 78 51 32
-0.103165  0.495047   1.85923 125 89 37
-0.062044  0.742402   2.09156 140 128 114
0.470707 0.474732  2.06754 139 104 48
0.311174  0.61484  2.01137 156 121 57
0.343557 0.431961  2.09038 162 118 43
0.357612 0.524302   2.0102 163 129 57
0.393785 0.297318  2.12141 153 118 52
-0.120154  0.572502   1.87446 165 131 68
0.0997636   0.49453   1.96489 175 139 63
0.396956 0.408867  2.12552 162 123 44
-0.282942  0.170004   1.75815 91 64 45
-0.324745  0.141594   1.75627 59 39 28
0.200122 0.506448  2.00228 177 140 62
-0.288425  0.175253   1.75896 67 40 23
-0.0203722   0.632387    1.92048 163 130 59
-0.288392   0.11913   1.70718 80 59 42
0.203055 0.490368  2.00907 171 133 58
0.483698 0.467225  2.06853 159 123 61
 0.35233 0.482931  2.02289 179 143 69
0.432933 0.761838  2.16599 166 153 144
0.475586 0.458287   2.0682 149 111 48
-0.168142   0.40131   1.86631 138 110 45
-0.254368  0.105084   1.72429 54 36 24
-0.288647 -0.170992   2.54589 198 191 183
0.491948 0.400007  2.08546 159 128 64
-0.272902  0.139582    1.7281 80 53 34
-0.309537  0.175617     1.761 80 58 37
-0.184974   0.40571   1.82995 151 124 55
-0.030778  0.575893   1.90983 155 125 63
0.357255 0.167982  2.17313 123 86 33
-0.0712399   0.572276    1.89993 157 126 69
-0.162518  0.586401   1.88916 143 127 112
-0.0441945    0.52159    1.88815 151 119 60
0.24458 0.33816 2.09214 169 133 59
0.48993 0.19409 2.16967 122 89 58
-0.345135  0.153631   1.77078 49 35 22
0.0439116 0.0325099   2.48568 181 172 165
 0.512488 0.0884389   2.47931 178 171 165
0.176737 0.291222  2.12295 174 142 69
0.440667 0.157495  2.15917 176 139 61
-0.0578851   0.628676    1.92451 171 138 69
0.416886  0.58776  2.05438 168 133 67
0.341792  0.43088  2.10506 177 135 49
0.289953 0.611685  2.00209 165 132 65
0.0413448  0.440692   2.08427 103 60 9
0.170836 0.225617  2.12076 173 140 69
0.356637 0.264835  2.12432 168 136 61
-0.349707  -0.14335   2.07966 180 171 166
0.209653  0.46846  2.02285 172 136 58
-0.0614518   0.410085    2.05475 100 60 11
0.435986 0.454526  2.04909 157 122 58
0.413065  0.26504  2.12934 146 110 50
0.177058  0.50463  1.99406 169 132 54
0.15355 0.23969 2.14966 170 138 65
0.308987 0.432507  2.06967 178 140 57
-0.236324  0.345812   1.82908 145 118 51
-0.200168  0.426663   1.85103 147 120 53
-0.369982  0.624735    2.3722 153 146 130
0.451714 0.173667  2.17554 176 140 62
0.370039 0.296191  2.12724 145 110 54
-0.423849  0.473826   2.14322 169 161 150
-0.0870173   0.387165    1.91799 131 102 34
 0.46312 0.405944  2.13441 161 122 45
-0.0535187   0.540283    1.88762 137 107 53
0.0693184   0.85723   2.02069 173 163 154
-0.0734986   0.528102    1.88853 133 100 55
0.219729 0.647273  2.00504 168 135 68
-0.334163   0.18658   1.77212 85 63 42
-0.101971  0.596465   1.88206 172 139 70
  0.3064 0.191475  2.12884 172 138 67
-0.297325  0.211234   1.78097 100 73 52
-0.0640111   0.341397    2.02894 157 121 45
-0.298717  0.542338   2.12013 139 130 113
0.375259 0.298177  2.11481 151 115 55
0.230278 0.400919  2.11926 163 118 37
0.134414 0.366865  2.07475 168 132 54
 0.16243 0.296796  2.09474 174 140 69
-0.0578369   0.405404    1.90562 144 114 41
0.365887 0.808732  2.13461 169 159 149
-0.306969 -0.124989   2.52117 185 178 172
0.280807 0.316229  2.10362 160 125 61
-0.036834  0.131482   1.80508 124 95 39
0.442187 0.282155  2.14498 156 123 56
 0.23992 0.324752  2.08649 168 131 60
 0.39891 0.162186  2.18117 169 136 59
0.434263 0.160638  2.16474 169 132 54
0.306959 0.464892  2.03219 180 144 68
0.427521 0.397841  2.12794 152 112 50
0.0923503   0.79198   2.07823 142 130 114
  0.154173 -0.0753944    2.74263 207 200 192
-0.287838  0.146219   1.78724 75 52 36
-0.130156  0.481796   1.83834 105 72 37
0.395166 0.284076    2.136 129 92 40
0.561333 0.461404  2.13976 202 191 185
0.560345 0.430175  2.17338 205 194 188
0.572431 0.446729  2.17675 207 194 186
0.357837 0.518374  2.01869 153 116 48
 0.46429 0.516504  2.04016 159 124 58
-0.178965  0.369562   1.84171 120 90 28
0.0240757  0.279721   2.04518 166 135 68
0.386415 0.315481  2.15269 163 126 56
-0.222281  0.129534   1.74878 67 45 32
 1.86529 -1.58439  6.54026 22 22 20
-0.0158704   0.652401    1.93025 171 138 71
-0.22931 0.133257  1.74678 65 39 22
0.404524 0.302967  2.15041 148 114 43
-0.320193 -0.141064   2.52757 181 172 165
0.129578 0.826585  2.03664 161 151 141
0.232388 0.405912  2.12033 151 104 24
-0.235188  0.132238   1.74644 76 48 34
0.242234 0.281845  2.11376 166 132 60
0.000292957    0.673606     1.94558 148 132 116
-0.0223772   0.653846    1.91063 143 129 116
-0.329494  0.234438   1.80104 102 91 61
-0.177218  0.403083   1.84345 136 107 47
0.108975 0.479245  1.97261 175 138 57
 0.40511 0.512708  2.02913 154 119 51
-0.298207  0.163207   1.64271 69 38 18
-0.308261  0.251159   1.79873 76 67 38
0.356362 0.255464  2.14357 185 148 70
0.115423 0.364583  2.07151 149 112 41
0.456142 0.172274  2.20964 190 149 67
-0.0494922   0.571578    1.88216 156 124 65
0.114659 0.783908  2.06065 142 128 115
 -0.31495 -0.139363   2.52495 199 190 185
0.0666514  0.956096   1.96795 177 167 158
0.171848 0.497298   1.9748 157 121 45
 0.40591 0.167272  2.19366 180 146 72
0.154414 0.812711  2.05526 160 148 136
0.372577 0.229497  2.16008 187 149 76
0.415007 0.277616  2.13737 143 107 45
0.251416 0.318435  2.11992 165 128 58
 -0.25221 -0.141804   2.54187 201 192 187
-0.15199 0.893686   2.0307 179 169 159
-0.120231  0.559886   1.87032 156 124 63
0.434648 0.164957  2.19286 191 155 77
0.201866  0.84888  2.05695 165 158 150
0.116433 0.497494  1.95925 182 144 71
0.314333 0.624995  2.01526 167 132 68
0.495493 0.376635  2.33265 160 150 140
 0.228977 -0.091222   2.58495 205 192 186
-0.13475 0.526652  1.84683 143 108 52
 0.41808 0.419864  2.08801 188 149 74
0.200948 0.305504  2.09398 165 131 59
0.263734 0.375806  2.12174 165 122 43
-0.0596607   0.165853     1.7985 97 73 35
-0.342192  0.542882   2.11885 143 134 119
-0.392908  0.545883   2.08273 137 129 118
-0.187768  0.419121   1.81739 145 115 51
0.163453 0.296974  2.08735 168 135 64
-0.242533  0.132255    1.7448 81 53 32
0.0626584  0.510803   1.90535 150 120 50
-0.153814 -0.139259   2.51073 213 202 196
-0.0514717   0.248666     2.0826 151 122 54
-0.189857  0.376014   1.84165 127 102 38
-0.210633 -0.229202    2.5418 217 206 200
0.292741 0.869057  2.08202 185 172 163
-0.132821  0.918882   2.00484 188 178 168
0.0855571  0.448248   2.10756 110 67 14
0.169485  0.43527  2.03288 90 47 5
-0.131442  0.553683   1.85518 156 124 65
-0.0625185   0.549178    1.87153 132 101 47
0.326835 0.447203  2.07247 184 147 67
0.552789 0.442399  2.13379 91 74 64
-0.188547  0.144153   1.86956 127 103 43
 -0.2057 0.196989  1.79423 122 103 45
-0.0389862   0.214984     1.8479 185 151 77
-0.040112  0.153404   1.81263 35 22 16
 0.51255 0.166788  2.31009 205 190 183
-0.251156  0.318324    1.8289 124 103 48
-0.0523519    0.17708    1.84282 33 18 11
-0.0810321   0.178078    1.89928 33 20 12
-0.21283 0.212029  1.78027 114 93 40
-0.0505703   0.150918    1.80428 66 47 32
0.555276 0.440747  2.15207 118 104 95
-0.25734 0.254167  1.93376 103 71 20
-0.315188  0.136296   1.75499 93 74 60
-0.0655804   0.371421    2.00977 120 84 24
-0.246003  0.129448   1.73287 69 46 30
0.334922 0.286952  2.12747 162 128 57
-0.32202  0.15637  1.76612 87 60 39
0.552773 0.433542    2.161 75 66 59
-0.319561  0.147497   1.75235 67 50 40
-0.236252  0.176558   1.74092 115 80 52
0.296312 0.616714  1.99474 145 112 41
-0.0330753   0.152459    1.80757 153 142 136
-0.23571 0.131926  1.74861 105 74 54
-0.0394051   0.506771    1.87928 151 120 56
0.763472 -2.76999  8.82155 34 32 33
-0.240091  0.135582   1.74262 68 37 16
-0.0713458   0.534176    1.87127 118 87 33
-0.312541  0.257176   1.80078 144 130 95
0.0374541  0.595053   1.91459 161 132 66
0.426098  0.41219  2.17156 99 66 21
-0.277489  0.177529   1.76311 78 49 31
0.132469 0.176274  1.95087 187 178 169
-0.251131 0.0872453   1.74519 48 38 29
-0.288561   0.21779   1.78084 75 48 27
-0.291611  0.216012   1.77824 77 46 26
-0.25636 0.126656  1.73163 60 34 19
-0.0740866   0.525123      1.874 135 103 46
-0.0726234   0.524064    1.87022 110 75 35
-0.320863  0.253335   1.80863 137 123 84
0.0447874   1.04574   2.03636 179 174 170
-0.186135  0.175808   1.75437 110 88 31
-0.141512  0.189535   1.77661 143 122 57
 0.33256 0.486082  2.01666 166 131 50
-0.274793 0.0740015   1.76996 48 39 34
-0.159082  0.489978   1.83985 105 73 26
-0.251951  0.137234    1.7322 58 27 9
0.458788 0.258123  2.11543 168 130 59
-0.147768  0.478897   1.83789 116 83 30
-0.275931  0.157499   1.74107 94 63 42
-0.272605  0.224602   1.78563 86 55 34
0.140058 0.460536  2.01177 160 122 49
-0.0706871   0.148215    1.79688 107 85 27
-0.169931  0.324344   1.79271 104 78 29
-0.274202  0.109221   1.71155 68 46 33
0.243279 0.681253   2.0287 163 137 76
-0.342848   0.13391   1.77873 98 81 71
-0.0853809   0.527168    1.87791 137 104 50
-0.320928  0.210921   1.92232 123 91 44
-0.288601  0.209008   1.77411 96 68 47
-0.28611 0.272522  1.80593 145 125 66
-0.258783   0.17136   1.74619 97 69 48
0.298294 0.322079  2.11386 136 101 35
0.531403 0.434166  2.20954 165 137 74
-0.0591129   0.110546     1.8236 53 40 24
-0.139359  0.363551   1.94946 150 113 42
-0.321542  0.215323   1.78143 77 55 41
-0.105273   0.53033     1.867 130 100 40
-0.324525  0.182337   1.76985 86 55 35
0.0918408  0.788696   2.05253 136 126 116
-0.265503  0.207616   1.77306 70 44 29
 0.23963 0.298112  2.09947 170 136 65
-0.128416  0.504678   1.85292 98 66 27
-0.305924  0.244919   1.78672 116 100 64
0.253215 0.678515  2.02709 163 134 74
-0.318941  0.212293   1.77832 58 32 15
-0.322989  0.179591   1.76623 91 63 42
-0.047481  0.109005   1.80351 92 68 44
-0.0647512   0.116888    1.80927 79 41 2
0.160314  0.46359  2.02783 181 144 56
 0.29984 0.441047  2.14015 150 111 46
0.300501 0.625673  1.98729 152 119 52
-0.214376   0.16416   1.74837 121 87 41
0.111077 0.622364  1.95738 167 138 68
-0.347566  0.149015   1.78224 49 32 22
-0.10499 0.128576  1.80777 136 111 47
0.410298 0.465215  2.05181 168 135 64
-0.137881  0.514447   1.84544 138 99 42
-0.14036 0.355351   1.8992 97 64 13
0.0174115  0.313232   2.05182 162 129 62
-0.156583  0.502714   1.84404 150 120 58
0.0274189  0.562071   1.92485 154 124 60
-0.30579  0.21322  1.77526 75 47 26
0.408881 0.276807  2.13348 144 108 50
-0.226761  0.105582   1.76506 86 67 35
-0.314784  0.222508   1.78275 66 44 31
-0.262592  0.161493   1.74511 107 72 50
 0.257587 -0.193531   2.73185 224 219 215
-0.276495 0.0897803    1.7389 10 5 1
-0.225713  0.171011   1.74665 128 89 58
-0.22488 0.170994  1.74537 120 86 61
  0.27819 -0.119715   2.72553 224 215 210
-0.302217  0.185258   1.76537 102 72 46
0.437975 0.227422  2.13509 182 144 69
0.127733 0.520733  2.40827 129 80 11
-0.0797169   0.520645    1.87379 143 112 55
-0.311096  0.218938   1.77921 65 39 22
0.0374132  0.437012   2.07512 105 64 8
-0.137628  0.516836   1.85391 146 106 54
-0.186436  0.437732   1.83615 172 142 69
-0.0794028   0.506815    1.86642 108 79 35
 0.236026 -0.256253   2.76346 223 215 212
-0.118795  0.156489   1.78746 123 101 44
  0.81259 0.0362095   2.68008 226 216 214
-0.239864  0.138872   1.73893 96 66 42
-0.021415  0.522866   1.89174 150 121 55
-0.200358  0.345226   1.82093 113 91 33
-0.327987  0.240541   1.80842 119 105 70
-0.00372379    0.307691     2.03591 162 128 64
-0.149371  0.368096   1.89317 95 73 23
-0.261315 0.0820536   1.71759 21 13 10
0.333015 0.633967  2.03478 161 133 60
0.324543 0.619041  2.00598 162 132 62
-0.287589  0.244969   1.79159 70 44 27
-0.107942  0.129771    1.7419 141 116 52
0.542643  1.13942  2.04457 181 174 168
0.476409 0.255427  2.13486 163 129 57
-0.110867  0.516904    1.8583 142 110 53
-0.0760131   0.292959    2.03441 157 123 59
 -0.573052 -0.0674831    2.42564 179 172 166
-0.0775017   0.293053    2.03783 159 125 53
-0.105849  0.502364   1.86124 131 96 38
0.245293 0.330329  2.11355 165 129 53
-0.065149  0.542714   1.87393 128 100 52
  -0.2454 0.0938034   1.75515 53 43 34
-0.0796961    0.12086    1.80366 162 131 66
-0.0476578   0.144193    1.80412 42 31 27
-0.136994  0.519888   1.85183 109 77 26
0.535309 0.637002  2.25577 183 170 161
-0.138241  0.356737   1.88706 85 60 20
-0.313037  0.236758   1.78369 111 98 64
0.418512 0.423037  2.09149 166 129 48
0.0339165  0.440232   1.95808 162 127 46
0.0157807  0.560574   1.89851 167 138 70
0.400017 0.471252   2.0261 183 150 73
-0.378071 0.0272519   2.35501 187 180 174
-0.212403  0.854447   1.90645 163 156 150
0.509435 0.701341  2.20667 174 164 155
0.430999 0.468695  2.05638 159 124 60
-0.159214  0.160754   1.74537 119 98 41
-0.328532   0.16636   1.76806 118 92 69
0.176822 0.403749  1.98394 131 82 13
0.522549 0.650343  2.22873 178 165 156
0.316819 0.623955  2.01177 143 115 50
0.110854 0.443434  2.06124 99 52 10
-0.111023   0.52725    1.8657 143 112 55
 0.26049 0.884456  1.99538 198 185 177
0.319286 0.935484  2.08498 182 175 169
-0.0771319   0.590026    1.88407 170 140 76
-0.0525328   0.255708    2.08077 160 126 52
 0.489221 0.0318083   2.70139 225 215 213
0.480543 0.403024  2.15314 183 162 143
0.134787 0.457823  2.02436 189 150 59
-0.304403  0.916639   1.91545 187 176 170
0.305125 0.220134  2.16824 178 145 68
0.170918 0.511112  1.97601 175 141 67
0.336396 0.430839  2.09551 202 159 65
-0.236079  0.202206   1.68348 85 58 41
-0.228563  0.172849   1.76555 75 50 19
-0.0984937   0.543449    1.86551 154 124 62
-0.0780939   0.130668    1.79803 139 110 40
-0.154863  0.528792   1.84902 148 122 65
-0.138999  0.345011   1.90563 132 94 29
-0.0240292     0.5149     1.8819 143 114 48
 0.16382 0.471436  2.02791 168 135 58
0.336651 0.616296  2.01165 161 133 60
-0.0880741   0.129408    1.78966 169 144 64
 0.315215 -0.105232   2.61401 210 197 191
0.227342 0.215125  2.18626 170 137 68
0.347615 0.290163  2.12599 151 117 46
0.365645 0.797987  2.06424 175 165 156
0.198834 0.865292  2.04816 178 167 161
-0.106718  0.140868   1.79569 166 139 62
-0.267602  0.329224   1.92141 193 183 174
-0.365997  0.211155   1.97343 194 184 175
-0.178093  0.214082   1.87163 76 47 13
-0.255689  0.148438   1.71005 187 176 170
-0.0893647    0.10837    1.83276 118 87 30
-0.274931    0.2331   1.86243 29 16 8
-0.379196  0.174964   1.88263 178 168 159
 0.55322 0.442268  2.17744 128 121 113
0.503038 0.170996  2.28225 25 21 12
-0.0345737   0.171918    1.81122 174 161 153
-0.0464223   0.208361    1.84503 131 101 49
-0.0345179    0.15877    1.82846 35 21 10
0.342502 0.181699  2.17832 138 107 42
 0.54877 0.479045  2.10449 164 155 150
-0.225863 0.0983847   1.78743 90 67 25
-0.215112  0.174478    1.7354 192 181 175
-0.273888 0.0814603   1.73885 54 36 24
-0.22447 0.323544   1.9166 142 112 58
-0.288989  0.121986   1.78978 14 9 6
-0.0680937   0.103891    1.79076 130 104 47
-0.192779  0.244792   2.05274 90 61 19
-0.208363  0.193601   1.74439 155 130 99
-0.264915   0.25047   2.04941 123 98 41
-0.28785 0.144578  1.80732 35 24 18
-0.227175  0.131944   1.75856 84 61 30
-0.174702  0.442405   1.99507 94 60 15
-0.31235 0.176723  1.84579 35 24 18
-0.203735  0.288542   2.06381 98 68 18
-0.0677903   0.165882    1.84578 43 30 21
-0.157228  0.300655    2.1896 119 88 34
-0.278593  0.174445   1.81588 24 14 5
0.517785 0.405606  2.16094 70 51 19
 -0.26062 0.0912372   1.77777 39 30 23
-0.29219 0.166119  1.82427 23 14 9
-0.270344   0.15465   1.80218 49 32 22
-0.122183  0.285475   2.17768 127 94 40
-0.169364  0.261034   2.16207 123 95 47
-0.267209   0.19369   1.82852 20 11 6
-0.176033  0.412795   1.99879 115 78 34
-0.201794 0.0878987   1.78855 93 64 22
-0.27481  0.12249  1.79121 20 15 11
-0.284246  0.193996   1.83068 37 27 18
-0.290049 0.0781442   1.77238 12 8 7
-0.328512   0.15255    1.8679 20 16 13
0.336372 0.175396  2.24145 86 53 18
-0.0989401   0.384029    1.98131 74 41 6
-0.0995897   0.387163    1.98185 87 52 10
-0.237747  0.258611   2.08299 106 78 31
0.380012 0.164772  2.20576 68 41 14
-0.21048 0.368562  1.92123 111 78 33
 0.32183 0.231078  2.14646 139 109 45
0.0120946  0.436379   2.00597 96 63 12
0.478426  0.17276  2.19374 109 78 24
-0.304679  0.123179   1.80425 24 19 16
-0.176492  0.124464   1.75735 160 131 73
0.046745 0.397131  2.01877 116 75 19
-0.225596  0.254584   1.99599 98 69 29
-0.307318  0.155735   1.81207 15 10 6
-0.274085  0.121423   1.79742 40 30 21
-0.328305  0.126438   1.79459 26 18 16
-0.341651  0.196398   2.32433 143 139 130
-0.0959771   0.108755    1.82214 104 74 24
-0.19303 0.250381  2.02783 107 75 26
0.505974 0.419933  2.11599 91 60 16
-0.180714  0.419319   2.00201 121 87 41
-0.292307  0.280593   2.00987 105 76 32
-0.191846  0.329361   2.16783 131 99 42
-0.254512 0.0781763   1.76778 24 16 13
0.417311 0.403017  2.06451 120 89 35
0.429341 0.401982  2.09425 100 70 16
0.469509 0.192494  2.17782 122 92 38
-0.126602  0.417776    1.9876 84 48 12
-0.0591806   0.163227    1.83221 24 17 9
-0.232659  0.263888   2.13743 134 104 50
0.110355 0.187541  2.13151 131 98 31
0.458841 0.432892  2.08085 113 81 32
-0.258243  0.321186   2.07894 92 59 14
-0.315309  0.123981   1.80173 18 14 11
0.379159 0.457218  2.03739 137 107 47
-0.0619376    0.16691    1.84162 19 14 10
-0.121561  0.105492   1.77148 167 138 78
0.029383 0.296669  2.09832 141 109 48
-0.312852  0.154928   1.89429 65 48 18
-0.312421  0.118167   1.80069 16 12 9
-0.205292  0.433378   1.96419 117 86 32
-0.173895   0.49431   1.99808 98 65 20
-0.325534  0.292493   1.98604 118 90 43
-0.218926  0.239368   2.13484 139 107 46
-0.248324  0.237321   2.00615 95 68 23
0.224108 0.467132   2.0238 136 102 38
 -0.2399 0.237739  2.04396 95 67 28
0.193255 0.460215  2.06037 130 92 27
-0.233612  0.282976   2.08084 110 78 31
-0.256601   0.24761   2.03431 107 80 27
-0.155185  0.253363   2.15125 122 92 38
-0.315563  0.145991   1.88496 71 53 29
-0.236064  0.238172   1.98547 85 57 18
-0.228827  0.345392    2.2533 148 132 116
-0.147062  0.282754   2.16879 125 96 40
-0.29495 0.243785  1.96101 98 69 25
0.360398 0.174765  2.20452 87 54 21
0.323763   0.1833  2.22649 77 50 20
-0.186131  0.242733   2.05217 103 72 25
-0.278223  0.253839   2.04149 124 97 42
-0.0558465   0.272324    2.08397 120 89 35
-0.137619  0.237159   2.05446 119 87 30
0.385498 0.163454  2.19159 83 55 16
0.200882   0.4689  2.05608 119 80 21
0.121976 0.236408  2.16961 124 95 29
-0.204489   0.27481   2.15732 125 94 47
-0.212719  0.274152   2.15789 131 101 51
-0.10909 0.456631  1.99093 93 60 19
0.155292 0.462094  2.04831 115 79 21
-0.324428  0.135971   1.79747 19 11 8
-0.279345  0.228908   1.97541 91 62 20
0.388092 0.457273  2.03038 133 103 43
-0.0751459    0.43896    1.89793 116 87 31
-0.247584  0.249192   2.05465 104 76 29
-0.129393  0.250182   2.06576 105 75 21
0.0998589  0.471705   1.98573 119 87 30
0.00618276   0.280583    2.13998 123 89 26
0.383506 0.437815     2.04 127 95 36
-0.160298  0.293718   2.08909 118 83 27
0.0501179  0.488674     1.977 108 78 28
 0.16508 0.209113  2.11475 146 113 46
-0.189532  0.451145   1.98476 102 66 16
-0.269836  0.219155   1.96221 77 51 16
 0.41593 0.395836   2.1405 75 45 9
-0.043965 0.0853006   1.80049 54 42 30
-0.0502048   0.352325    1.93008 84 60 16
-0.315504  0.111377   1.70236 15 11 10
 0.35497 0.177026  2.22697 39 21 7
0.480955 0.163663  2.24253 87 64 22
-0.0496853   0.175601    1.80653 29 18 14
0.415302 0.407714  2.16456 52 30 9
-0.269276   0.22749   1.85662 23 14 9
-0.354296  0.159225   1.77967 45 30 25
0.557448 0.441189  2.16107 14 13 9
-0.215601  0.132147   1.74992 57 38 23
-0.197383  0.120194   1.74449 145 117 67
-0.0771801   0.119611    1.80075 57 32 12
-0.0722541   0.131565     1.7953 124 99 42
-0.0624293   0.171464    1.78783 147 123 63
-0.241114  0.174425   1.73838 102 71 51
0.387118 0.369908  2.10002 110 75 17
0.360121 0.527223  2.00618 155 125 65
0.552259 0.433207  2.16575 126 123 116
0.562007 0.447694  2.15519 134 129 123
0.500156 0.172761  2.29758 137 130 120
0.527957   0.4998  2.27785 122 113 98
0.408567 0.423596  2.07964 123 87 27
-0.222367  0.132514   1.74537 91 68 52
0.545578 0.480109  2.12029 115 98 72
0.446716 0.455259  2.06732 130 99 45
-0.283542 0.0872021    1.7477 16 10 10
0.548442 0.471058  2.11649 137 133 124
0.364834 0.177643  2.18393 110 80 28
0.384804 0.279147  2.12444 110 79 33
0.446516 0.458681  2.05414 96 67 27
0.542278 0.425092  2.18816 157 148 141
0.535492 0.439193  2.13162 89 65 31
-0.0507878   0.214427    2.15312 105 78 31
0.559343 0.433845  2.15638 161 156 152
-0.164634  0.479186   1.83662 167 140 87
-0.353696  0.162023   1.85737 30 25 22
 0.49648 0.171171   2.2783 51 40 20
0.472341 0.455591  2.06405 95 65 15
-0.308503  0.116127   1.76741 27 22 19
-0.141956   0.30901   2.22706 96 74 35
0.31992 0.17897 2.23049 64 39 9
0.356853 0.295018  2.12071 120 88 37
 -0.1048 0.205777  2.15556 119 93 44
0.442084 0.411131  2.18094 61 35 2
0.367743 0.169114     2.25 57 38 8
0.278467  0.19038  2.21644 102 74 27
0.494433 0.172822  2.29141 53 40 21
0.337515 0.177021  2.24368 55 34 7
0.49744 1.03054 2.01352 172 163 158
0.0624932  0.286697   2.08462 138 106 45
